119 123 122 118 111 105 103 95 87 83 89 82.059 82.059 82.06 82.061 82.062 82.062 82.063 82.065 101 97 100 92 97 99 98 103 107 103 104 104 105 110 130 127 118 115 143 185 192 226 219 205 191 182 177 176 157 179 160 168 195 177 183 184 193 164 173 201 202 194 200 189 166 143 133 129 138 121 119 153 176 152 122 92 77 60.009 71 103 134 159 169 153 151
121 120 119 117 116 108 105 97 90 87 84 82.057 82.058 82.058 82.059 82.06 82.061 82.062 85 113 116 118 100 92.002 93 99 103 116 131 123 123 126 146 163 152 142 152 185 210 191 195 221 214 193 178 164 155 152 157 161 176 186 161 183 173 172 152 177 186 188 173 180 193 177 164 142 124 122 116 122 147 174 159 130 140 117 60.007 70 107 144 167 159 136 130
124 122 117 114 113 111 107 96 90 85 82.055 82.055 82.056 82.057 82.057 82.058 115 123 120 127 121 115 114 103 97 101 111 154 187 181 174 175 181 181 172 164 173 227 244 200 184 181 199 205 209 192 181 172 152 145 167 182 157 182 184 157 151 167 179 180 165 168 181 186 181 164 159 137 112 110 150 170 162 153 135 110 69 60.005 93 148 152 130 121 124
119 127 120 118 113 106 101 98 87 82.052 82.053 82.054 82.054 82.055 82.056 124 153 143 132 123 112 109 116 110 102 104 151 199 199 200 195 184 175 171 169 166 167 205 227 193 187 175 173 206 222 208 179 163 154 141 151 180 159 157 180 161 144 157 187 176 155 156 166 168 170 164 160 151 134 106 145 153 147 151 146 122 86 69 60.002 110 129 112 108 110
112 128 125 123 117 110 99 90 84 82.05 82.051 82.052 82.053 82.053 82.054 93 106 126 128 111 101 101 108 113 114 144 191 198 190 187 186 181 176 171 162 160 161 199 246 229 183 169 158 167 208 216 199 185 191 172 141 140 144 137 171 144 146 174 174 168 146 156 157 152 161 159 144 130 120 103 134 146 138 131 141 123 115 97 63 60 81 56 60 73
112 126 122 125 119 110 106 94 90 82.049 82.049 82.05 82.051 82.051 82.052 82.053 82.055 106 105 98 97 101 116 156 188 194 187 186 179 180 209 224 220 186 163 159 165 240 245 217 198 163 160 158 195 195 216 211 206 188 174 155 135 132 161 137 159 163 158 160 145 144 142 139 150 154 150 146 131 103 128 135 133 123 118 134 123 107 93 62 45.003 45.002 45 44.009
106 99.006 119 125 116 110 98 97 93 82.047 82.048 82.048 82.049 82.05 82.05 99 108 84 89 92 92.002 110 166 192 198 186 176 173 179 208 241 212 238 216 182 159 163 227 244 228 196 171 152.01 152 176 186 202 205 194 195 193 183 173 136 122 126 158 159 148 141 140 132 128 134 135 139 134 126 116 108 103 120 123 117 103 105 108 107 104 79 46 67 76 52
99.003 102 125 125 115 100 82.043 82.044 82.044 82.045 82.046 82.047 82.047 82.048 96 94 84.002 84.002 93 92 95 141 182 188 185 175 167 177 193 243 225 195 194 216 188 194 154 184 233 219 195 176 174 156 152 195 184 194 188 178 193 189 172 163 146 122 125 139 144 130 130 129 122 118 125 126 129 120 121 114 89 109 115 118 108 92 90 88 83 67 48 83 89 79
99.002 111 128 119 110 92 82.041 82.042 82.043 82.043 82.044 82.045 82.046 91 109 84.005 84.004 84.003 96 102 121 170 175 177 178 170 166 173 211 249 212 191 175 186 168 180 152.01 198 214 191 212 213 204 195 152 162 165 182 180 169 182 182 176 166 155 138 118 117 130 126 124 123 116 115 118 115 117 126 124 102 87.002 117 102 101 108 97 77 69 67 57 47.018 70 98 96
99 114 126 111 100 86 82.039 82.04 82.041 82.042 82.042 82.043 82.045 88 89 84.007 84.006 90 99 95 119 168 169 166 170 166 164.01 171 214 257 226 185 174 176 171 152 172 202 187 179 181 195 174 158 161 129 155 173 172 160 159 154 153 157 149 141 141 123 113 110 121 119 115 126 113 115 110 131 124 92 87 110 107 82 85 77 68.002 68 68 54 47.016 59 90 83
82 104 115 110 106 83 82.038 82.038 82.039 82.04 82.041 82.042 82.044 87 84.009 84.008 84.008 84.008 88 107 147 172 171 164.01 165 169 164.01 165 186 236 232 205 175 169 167 152 190 184 182 176 154 156 146 133 133 129 130 138 146 154 152 141 134 138 142 140 148 139 112 105 122 117 123 126 117 113 107 144 119 97 80 77.008 83 77.003 77.002 77 80 82 72 50 47.014 49 56 53
81 133 116 100 92 82.037 82.036 82.037 82.037 82.038 82.04 82.042 117 112 84.011 84.01 84.009 86 90 117 150 168 176 170 164.01 165 164.01 164.01 189 218 201 190 187 170 161 152 165 160 166 155 144 144 144 158 160 147 123 118 117 124 139 141 135 127 131 128 132 140 131 105 105 105 123 118 123 103 103 144 127 105 90 81 77.006 81 96 97 89 81 58 47.015 47.014 47.012 47.01 47.008
114 131 107 93 84 82.035 82.034 82.035 82.036 82.037 118 134 139 114 88 101 96 84.012 85 100 136 190 205 183 167 164.01 164.01 164.01 189 199 183 168 164 161 159 149.01 149 149 149 147 149 156 168 174 166 159 154 153 135 116 107 123 134 125 115 118 120 124 134 125 104 93.002 105 105 107 103 111 124 130 129 121 112 118 113 102 96 92 63 50 48 59 55 55 49
130 126 110 108 101 84 82.032 82.033 82.035 82.037 156 168 163 133 95 98 92 88 98 111 154 200 210 178 167 167 165 164 170 164 157 155.01 155 155 155 149.01 165 176 173 164 167 167 147 142 139 136 139 139 125 116 110 107 107 106 100 101 100 97 104 118 122 109 93 85 86 104 105 94 104 117 130 131 130 120 107 96 71 53 50 58 80 77 65 52
117 123 110 110 104 85 82.031 82.032 82.034 82.036 112 145 146 139 105 88.004 88.002 110 147 177 191 173 178 177 176 185 175 164 164 166 165 159 168 178 181 177 186 182 170 170 157 146 144 142 139 140 126 125 126 117 124 117 108 99 93.003 93.002 93 92.006 92.004 92.002 92 90 84 80 77.002 80 79 77 79 85 96 101 97 98 102 81 57 52 55 79 93 90 83 65
102 103 88 82.027 82.027 82.028 82.03 82.032 82.033 82.035 82.037 97 115 116 100 94 105 142 182 205 205 183 190 189 196 203 185 185 181 190 192 200 202 193 193 188 175 172 175 169 162 151 152 151 158 136 125 141 130 118 120 110 109 107 105 111 103 106 113 101 92 85 84 83 82 77 72 71 69 68.002 68 67 66 64 66 61 54 56 74 92 101 98 91 68
85 83 82.024 82.025 82.026 82.027 82.029 82.031 82.033 82.034 82.036 99 101 99 91 94 159 187 190 194 182 182 203 207 226 227 205 224 213 207 215 212 214 204 200 191 181 180 182 178 169 158 161 157 146 126 139 144 137 119 125 119 125 132 130 135 116 111 103 108 100 98 108 113 116 112 104 96 82 79 72 67 63 59 58.002 58 63 81 95 100 103 100 89 70
82.023 82.022 82.023 82.023 82.025 82.027 82.029 82.03 82.032 82.034 82.035 82.037 83 95 82.044 82.044 135 208 211 185 148 143 166 179 224 227 229 264 226 239 237 225 237 236 231 191 183 181 186 183 167 164 158 153 128 136 153 149 133 135 150 143 131 152 157 143 129 123 118 103 99 115 124 113 111 114 115 113 110 110 103 94 77 71 75 79 93 98 102 102 96 96 91 66
82.021 82.02 82.021 82.023 82.024 82.026 82.028 82.03 82.031 82.033 82.035 82.037 82.038 83 82.042 82.044 87 149 162 151 133 126 142 143 168 183 187 221 205 195 178 168 183 214 214 158 146 149 153 157 172 177 159 140 135 141 157 155 133 135 152 158 146 169 166 155 140 128 118 113 108 106 105 103 100 95.002 95 90 84.002 84 86 81 73 98 103 103 105 104 105 99 88 82 70 59
83 82.018 82.02 82.022 82.024 82.025 82.027 82.029 82.031 82.032 82.034 82.036 82.038 82.039 82.041 82.043 84 129 136 130 127 122 131 130 136 139 142 151 160 142 138 145 147 154 149 140 141 158 165 165 157 155 150 141 157 150 159 145 141 149 166 181 192 201 198 174 151 140 130 118 116 111 111 124 118 99 100 94 99 84 81 74 82 104 110 106 103 100 100 97 92 74 64 65
82.016 82.018 82.019 82.021 82.023 82.025 82.026 82.028 82.03 82.032 82.033 82.035 82.037 82.039 82.04 92 112 132 140 142 129 121 116 120 122 124 128 134 167 150 130 134 133 129 130 133 139 147 156 165 161 151 141 145 156 162 154 157 181 194 232 263 271 234 250 216 163 151 141 127 122 126 132 134 119 99.002 99 96 97 87 92 89 83 88 98 99 94 92 91 88 80 67 69 68
82.015 82.017 82.019 82.02 82.022 82.024 82.026 82.027 82.029 82.031 82.033 82.034 82.036 82.038 82.04 82.041 106 129 123 140 140 123 114 114 116 115 117 121 132 135 126 126 122 121 125 128 135 141 149 151 155 155 153 144 144 157 186 208 208 211 236 233 246 199 224 249 207 183 152 135 127 136 148 132 111 102 103 99 99 92 105 100 89 83.002 87 92 89 86 83 75 67 65 65 62
82.014 82.016 82.018 82.02 82.021 82.023 82.025 82.027 82.028 82.03 82.032 82.034 82.035 82.037 82.039 82.041 95 119 115 123 133 113 110 110 111 108 113 114 120 124 118 111 113 113 115 137 164 175 172 152 154 155 160 164 152 159 204 189 181 189 219 223 218 186 206 236 231 224 175 146 143 152 157 133 116 118 107 108 106 100 119 110 100 86 89 100 95 81 78 72 66 67 62 58
82.015 82.017 82.019 82.02 82.022 82.024 82.026 82.027 82.029 82.031 82.033 82.034 82.036 82.038 82.04 82.041 99 120 98 89 105 110 109 109 110 107.01 114 112 108 107.01 107.01 107.01 118 131 141 189 210 206 186 152 152 152 169 204 195 183 188 178 173 178 194 201 194 174 167 216 194 225 223 178 165 172 150 136 130 132 137 134 111 110 131 120 107 92 90 98 92 81 74 69 66 65 61 59
82.016 82.018 82.019 82.021 82.023 82.025 82.026 82.028 82.03 82.032 82.033 82.035 82.037 82.039 82.04 82.042 82.044 82.046 82.047 109 111 115 113 111 109 107.01 107.01 107.01 107.01 107.01 107.01 109 132 166 187 209 209 187 183 164 152 152 182 213 239 237 222 203 194 173 165 166 175 184 163 207 188 199 227 219 226 213 176 145 149 141 161 146 116 132 150 148 125 110 102 101 90 86 82 78 66 63 64 63
82.017 82.018 82.02 82.022 82.024 82.025 82.027 82.029 82.031 82.032 82.034 82.036 82.038 82.039 82.041 82.043 82.045 82.046 108 126 131 133 128 118 113 110 107.01 107.01 107.01 107.01 109 129 139 160 195 199 195 183 174 182 152.01 168 201 204 220 239 235 203 200 168 150 141 157 174 163 183 178 185 187 217 218 201 174 155 189 184 195 177 170 197 180 173 151 124 113 106 99 95 83 73 73 71 71 69
82.017 82.019 82.021 82.023 82.024 86 82.028 82.03 82.031 82.033 82.035 82.037 82.038 82.04 82.042 82.044 82.045 97 116 123 172 177 177 164 156 154 151 139 113 107 113 151 169 175 186 177 182 176 161 174 156 167 191 192 212 235 227 221 212 203 181 141 132 143 157 149 159 155 168 187 180 172 151 162 171 168 191 166 175 199 195 185 166 143 140 142 121 102 86 78 80 77 73 71
82.019 82.02 82.022 82.023 82.025 87 82.03 82.03 82.032 82.034 82.035 82.037 82.039 82.041 82.042 82.044 82.046 94 98 145 184 185 199 185 170 172 178 171 151 124 107 148 167 170 171 161 173 169 153 150 146 150 168 188 205 204 208 207 206 212 204 186 148 127 136 132 143 138 157 165 174 158 151 157 152 155 180 165 150 168 171 160 151 163 156 148 134 118 107 96 83 82 84 74
82.021 82.022 82.022 82.024 82.026 82.027 82.029 82.031 82.033 82.034 106 126 110 114 115 92 93 83 123 179 166 165 182 171 157 143 151 163 163 131 107 139 142 147 150 154 160 154 143 142 139 145 167 186 186 173 173 169 182 196 199 205 200 160 122 121 129 132 139 147 154 146 134 155 136 140 159 158 137 147 164 149 141 143 136 131 128 129 115 106 99 91 82 75
82.023 82.023 82.024 82.025 82.026 82.028 82.03 84 93 149 187 190 190 165 144 139 125 109 167 183 155 154 169 172 158 146 131 129 137 119 105 122 125 131 149 146 145 153 140 131 128.01 142 157 163 155 149 145 153 167 171 170 171 185 177 160 120 110 123 120 129 131 144 132 132 124 140 141 140 134 128 145 148 127 127 123 128 129 115 107 102 98 91 82 83
82.024 82.025 82.026 82.026 82.027 97 165 176 159 171 199 180 195 196 158 129 126 128 161 169 148 141 154 169 169 155 142 126 121 124 105 108 121 129 141 134 141 159 143 130 128.01 148 137 132 130 133 131 145 149 149 136 137 141 150 170 171 132 100 111 113 122 132 127 113 114 127 128 121 123 117 118 137 120 112 120 125 116 100 97 93.002 93 88 94 92
82.026 82.027 82.027 82.028 111 169 210 206 198 174 193 170 172 188 179 166 147 127 149 150 133 130 150 161 156 147 146 147 131 115 102 96 110 123 133 124 133 169 184 138 128 153 136 128 125 119 120 128 127 128 120 113 118 127 141 146 149 123 95 99 113 113 119 107 104 115 118 108 102 103 105 114 112 112 115 115 109 106 107 101 104 101 103 96
82.028 92 91 96 146 178 196 196 174 163 181 181 157 165 162 164 151 138 130 143 127 134 146 151 136 130 129 133 130 126 116 94.004 108 125 129 116 130 150 156 139 128 144 125 117 115 116 109 110 110 108 102 103 103 104 109 119 123 128 112 91 100 104 108 104 98 107 96 96.002 100 108 104 108 115 125 128 131 123 120 118 116 116 114 111 108
116 119 105 120 152 159 194 204 194 168 152 151 143 137 140 153 143 131 120 122 116 124 134 136 136 130 121 111 113 105 96 94.002 109 116 122 116 113 137 137 128 128 153 124 108 102 104 104 97 96 97 94 94 93 94 92 100 103 108 108 90.002 96 114 93 89 89 90 99 110 123 133 122 117 122 134 142 149 149 145 141 139 135 133 127 126
115 125 121 124 147 181 184 196 197 180 170 167 163 154 136 129 142 137 126 111 107 120 132 114 117 123 124 114 106 105 112 95 94 102 112 119 101 119 132 113 143 171 136 107 96 91 95 92 88 85 83 81 79 78 81 87 97 96 101 98 90 98 73 76 93 97 106 110 125 137 123 120 122 136 150 153 160 173 182 178 176 170 167 156
123 130 122 122 175 150 149 165 171 183 177 177 158 144 134 123 123 135 125 118 106 113 116 107 115 117 125 123 114 117 116 96 84 104 120 123 99 102 123 108 148 153 122 107 94 84 86 93 85 82 80 76 69 67 74 86 105 100 95 103 78 69 77 92 111 99 102 108 116 133 125 134 127 137 145 153 172 188 199 194 198 184 179 175
140 138 129 119 138 122 144 134 132 147 154 170 164 150 144 135 118 134 129 129 117 104 99 107 111 112 125 122 122 130 120 99 82 99 116 101 92.004 112 125 106 123 139 112 101 93 87 81 83 79 80 83 77 66 71 97 93 104 103 88 87 69 63 89 95 107 108 108 120 118 134 139 150 141 136 142 158 180 189 187 180 185 183 169 175
177 152 134 127 115 114 112 132 127 115 137 164 175 153 135 117 120 138 129 117 112 109 97 92 102 109 110 108 114 126 121 101 81 83 92 92.002 110 144 133 105 108 140 114 99 91 89 82 79 74 70 69 66 64 88 110 101 94 84 76 62 61.002 76 81 92 105 112 119 125 134 148 161 168 150 156 154 151 169 163 160 163 162 168 169 177
206 184 167 133 128 123 104 114 145 115 132 151 157 144 124 109 141 147 132 123 116 107 103 90 99 101 102 107 103 102 114 105 80.01 86 93 107 144 142 117 99 106 137 118 104 94 90 89 84 82 71 70 71 59.002 74 92 105 91 75 59 61 70 74 84 96 93 109 121 127 133 148 157 154 146 160 163 148 141 128 139 156 167 166 171 174
203 175 163 134 160 139 111 99 111 106 114 139 157 143 109 129 163 151 144 135 132 124 110 99 89 92 102 111 100 94 104 88 80.008 89 104 135 149 124 104 97 106 118 127 116 97 94 95 91 90 85 77 74 59 62 99 97 82 66 53.007 58 61 68 84 84 83 91 103 110 112 120 134 126 134 144 146 149 144 120 129 145 156 168 160 164
184 164 150 134 143 139 120 103 97 95 91.002 124 145 116 108 156 158 135 147 151 139 122 113 101 87.004 98 106 103 98 94 89 80.006 80.007 98 105 133 122 106 97 93 102 108 120 114 100 100 99 95 91 86 85 72 57.002 57.002 92 84 57 53.004 56 68 61 63 65 67 76 87 87 93 94 95 106 110 114 115 116 129 125 107 115 128 138 156 156 152
164 148 134 134 134 175 163 126 114 110 95 91 104 93 139 155 147 124 133 139 148 133 121 96 87.002 112 110 99 88 94 80.003 80.004 93 112 117 116 109 101 92 99 103 113 117 110 99 92 96 98 89 82 77 77 71 57 61 53 53.002 55 65 69 65 85 78 65.002 71 75 82 87 83 92 92 95 102 102 109 115 103 116 122 141 155 162 158 168
182 145 143 136 151 172 185 168 151 130 148 109 87.008 87.006 112 136 129 122 106 127 141 136 106 87 93 128 125 107 92 85 80.002 97 101 108 115 109 103 89 92 102 111 122 106 89 87 86 87 88 84 83 74 66 64 68 50 55 66 65 71 76 65.002 69 75 65.004 69 73 80 79.002 79.004 83 91 97 110 112 103 98.002 104 124 134 151 163 163 172 171
210 194 146 164 182 195 196 166 147 141 172 152 115 98 87.003 87.002 87 89 101 123 115 128 119 84 100 131 119 115 103 90 80 101 112 115 110 102 86 93 105 122 142 132 102 85 78 77 80 78 83 84 73 71 80 64 48 75 80 78 77 71 70 78 77 70 77 75 79 80 84 93 100 100 111 106 98 115 128 147 158 170 173 176 186 186
162 162 146 188 204 211 195 176 158 167 186 144 121 129 108 99 92 83.005 83.003 83.002 83 100 104 81 110 136 115 109 102 77.003 96 111 108 98 99 90 84 101 101 113 148 152 121 101 81 70 71 72 93 104 92 97 66 46.007 65 81 92 91 88 84 81 84 80 78 82 85 89 94 95 106 107 112 117 97 113 135 146 146 159 179 181 186 201 206
167 164 161 162 174 193 200 199 214 222 188 159 155 172 135 134 118 131 109 106 93 75 73.007 73.005 96 124 128 123 94 77.002 114 124 103 85 82 74 94 103 107 125 148 143 110 83 78 73 65 67 89 92 83 78 46.004 61 84 97 106 105 112 99 103 101 92 91 92 96 96 94 98 115 112 122 115 96 115 127 121 125 144 166 165 182 207 212
194 180 176 179 199 199 188 207 199 199 202 203 197 198 180 170 156 170 162 163 131 125 132 108 73.002 94 135 123 79 77 101 104 96 76 67 78 89 107 116 120 124 127 119 87 76 74 73 64 79 79 81 66 46.002 79 107 111 93 103 113 102 106 109 109 99 91 95 86 88 100 114 114 124 98 92 113 109 108 121 126 130 138 171 192 204
205 196 189 191 196 189 175 157 151 144 141 162 159 146 166 166 162 175 179 178 174 162 161 132 85 73 123 131 86 73 89 85 79 62 69 94 114 139 113 103 108 139 148 113 101 76 66 57 68 75 77 46 50 94 115 92 90 108 96 83 92 103 106 92 81 71 77 91 100 108 103 103 90 78 96 91 102 106 107 114 134 161 177 185
189 187 199 206 195 176 164 166 152 140 129.01 149 140 128 147 133 133 136 129 119 148 160 160 151 120 72.002 98 123 101 67 77 73 70 60 84 121 138 124 96 102 137 143 128 125 120 84 61 48.005 59 71 64 35 56 86 85 71 81 79 76 79 93 100 85 82 73 61 72 74 81 84 71 75 87 73 81 74 85 93 108 128 133 141 172 173
144 144 166 194 180 163 145 137 129.01 129 129 148 130 120 127 109 120 117 108 97 114 111 105 118 131 85 72 114 108 59 72 85 59.003 67 113 111 125 105 95.002 121 140 129 107 100 117 110 92 55 48.002 52 45 33 60 62 59 58 70 72 77 94 101 95 70 64 60 52 52 52.002 56 59 60 61 65 65.002 70 84 82 88 109 122 117 129 163 173
120 118 131 168 183 172 170 163 164 138 129 155 142 122 120 109 126 107 86 83.004 83.002 83 81.002 81 84 70 56 77 84 70 58 82 59.002 94 113 106 126 95 109 126 115 119 107 96 95 98 103 83 62 48 32.006 36 52 49.002 53 70 89 92 80 103 109 89 79 71 59 51.003 57 66 69 67 89 84 65 73 71 88 98 90 94 99 108 124 159 179
108 106 112 136 159 153 169 185 187 150 129 132 134 120 105 95 92.002 92 92 86 93 83 81.002 82 75 67 62 51 54 60 50 61 59 89 91 110 114 91 105 103 94 103 95 87 82 80 79 78 74 54 32.004 38 49 60 73 92 96 101 101 119 121 115 103 80 60 51.002 60 77 84 82 90 93 80 84 77 103 118 117 114 111 123 139 171 188
94 93 98 107 128 125 131 183 182 145 123 110 110 104 97 92.004 97 123 119 100 108 116 106 140 128 102 81 57 48 47.003 47.002 47 50 70 86 99 88 78 82 79 78 81 78 72 66 57 56 52 51 43 32.002 63 89 87 108 113 123 127 124 133 140 143 126 98 56 51 73 93 97 92 98 91 93 89 77.002 85 101 128 130 127 141 170 184 179
90 101 104 112 119 116 118 165 161 124 110 110 120 145 134 115 105 108 130 110 143 161 159 161 147 129 113 91 75 73 80 60 43.004 50 74 84 80 74 69 67 66 66 62 66 62 53 47 55 58 32 33 68 94 112 134 151 137 117 110 104 112 120 120 77 40.003 40.004 52 70 108 119 123 109 102 97 84 81 94 97 100 112 124 157 176 169
88 106 128 128 122 121 116 116 114 114 127 125 119 146 138 115 105 135 165 152 162 145 146 134 120 109 102 96 85 71 71 79 59 43.002 66 85 73 67 58 56 53 51.003 51.002 51 49 48 39.004 61 63 28 45 95 92 99 108 124 115 101 99 82.002 93 102 103 75 40.002 71 85 103 109 149 157 131 111 104 89 85 93 103 98 100 117 139 172 172
87 96 116 135 132 133 129 118 114 114 159 153 132 126 136 153 152 174 161 138 132 120 106 103 88 77 75 71.002 71 64 55.002 55 53 43 48 68 72 70 73 67 70 65 58 59 62 46 39.003 39.002 39 25 43 70 67 73 78 94 95 94 102 82 98 87 84 63 40 72 94 96 104 124 128 137 122 103 100 93 92 102 117 123 110 118 137 150
82 88 120 185 164 192 182 149 121 143 164 153 140 173 180 172 167 147 134 109 95 87.005 87.003 87.002 87 110 109 94 93 98 88 77 69 48 39.003 63 86 91 112 124 127 129 124 123 105 75 49 43 46 28 24 35 45 45 52 60 65 70 70 63 66 83 79 52 33 51 67 74 84 102 107 130 127 122 109 105 108 113 117 132 132 125 128 141
92 103 134 218 222 185 169 136 131 150 163 197 190 171 149 134 125 119 113 108 117 134 149 108 138 126 131 124 125 120 98 112 99 48 39.002 63 79 124 121 102 95 97 90 86 94 91 72 57 66 43 20.002 21 34 35 36 43 58 71 54 48.002 48 47 55 55 31.002 52 63 73 81 92 111 109 126 146 135 133 130 125 115 110 116 123 129 149
101 115 155 217 213 191 170 132 139 137 183 179 148 131 131 131 142 121 112 126 165 146 157 145 156 148 143 131 118 99 100 91 73 45 39 68 84 119 96 77 67 71 61 66 64 66 64 58 74 60 39 20 28 39 49 57 59 71 51 62 64 58 37 31 33 74 84 73 89 108 97 99 120 132 146 151 154 128 104 92 102 104 110 124
97 109 170 195 195 176 157 142 137 145 161 147 133 144 137 136 142 129 141 157 174 156 141 132 119 113 112 103 106 99 94 83 73 41 37.002 63 87 97 77 72 58 64 59 58 49 43 42 51 75 63 46 20 19 37 41 39 43 47 45 51 59 72 47 20.004 34 56 58 75 87 102 84 91 103 107 119 135 164 119 75.006 79 121 131 151 135
75 94 117 140 164 177 166 151 158 178 180 188 175 203 208 199 200 181 177 180 148 121 106 99 93 83 83 78 85 85.002 94 81 61 37 38 68 95 82 74 68 57 58 54 46 46 36 30 39 59 63 38 15.002 17 31 36 36.002 39 44 38 33 40 48 41 20.002 30 36 43 54 69 83 82 78 92 90 100 120 136 96 75.004 76 111 140 132 141
76 93 105 130 144 154 202 191 203 213 206 221 229 212 178 181 186 174 160 146 126 95 87 79 74 75 66 68 85 86 88 81 66 36 42 77 98 72 61 65 57 43 37 33 33 33 26 26 32 54 48 16 15 25 37 39 45 44 35 28 30 28 20 28 33 42 41 41.002 48 61 75 82 95 75 87 104 109 75.002 75.002 77 121 163 132 153
